353444.58000 363947.20000 10.75000
353445.15000 363947.32000 10.91000
353445.71000 363947.43000 11.09000
353446.29000 363947.56000 11.21000
353446.86000 363947.68000 11.35000
353447.43000 363947.80000 11.51000
353448.00000 363947.91000 11.64000
353448.57000 363948.03000 11.82000
353449.14000 363948.15000 11.92000
353449.71000 363948.26000 12.04000
353450.29000 363948.38000 12.17000
353450.86000 363948.50000 12.31000
353451.43000 363948.62000 12.48000
353452.00000 363948.73000 12.65000
353453.28000 363948.99000 11.53000
353520.53000 363962.81000 11.77000
353521.12000 363962.93000 11.87000
353521.72000 363963.06000 11.89000
353522.32000 363963.18000 11.94000
353522.91000 363963.30000 12.06000
353523.52000 363963.43000 12.02000
353524.12000 363963.55000 12.07000
353524.72000 363963.67000 12.13000
353525.32000 363963.80000 12.11000
353525.92000 363963.92000 12.19000
353526.52000 363964.04000 12.23000
353527.12000 363964.18000 12.25000
353527.72000 363964.30000 12.27000
353528.31000 363964.42000 12.38000
353528.92000 363964.55000 12.39000
353529.52000 363964.67000 12.42000
353530.13000 363964.80000 12.44000
353530.74000 363964.92000 12.43000
353531.33000 363965.04000 12.51000
353531.94000 363965.17000 12.52000
353532.53000 363965.29000 12.59000
353533.14000 363965.42000 12.61000
353533.75000 363965.54000 12.59000
353534.35000 363965.66000 12.65000
353534.97000 363965.79000 12.61000
353535.56000 363965.91000 12.69000
353536.16000 363966.04000 12.75000
353536.76000 363966.16000 12.82000
353540.35000 363966.89000 9.49000
353540.88000 363967.00000 9.97000
353541.43000 363967.11000 10.39000
353541.95000 363967.23000 10.90000
353542.49000 363967.35000 11.33000
353543.01000 363967.45000 11.86000
353543.55000 363967.57000 12.29000
353544.08000 363967.67000 12.81000
353544.68000 363967.80000 12.83000
353545.41000 363967.95000 12.15000
353546.13000 363968.09000 11.49000
353546.87000 363968.24000 10.75000
353547.57000 363968.39000 10.22000
353548.22000 363968.52000 10.02000
353548.87000 363968.65000 9.78000
353549.50000 363968.78000 9.69000
353550.12000 363968.91000 9.62000
353559.16000 363917.12000 24.04000
353550.78000 363969.05000 9.43000
353559.78000 363917.24000 23.92000
353562.97000 363917.43000 13.15000
353563.57000 363917.55000 13.23000
353564.20000 363917.67000 13.16000
353564.81000 363917.79000 13.16000
353565.44000 363917.91000 13.09000
353566.05000 363918.04000 13.09000
353566.65000 363918.16000 13.16000
353567.28000 363918.28000 13.12000
353567.88000 363918.41000 13.19000
353585.66000 363976.27000 11.03000
353586.20000 363976.38000 11.51000
353586.74000 363976.50000 11.91000
353587.28000 363976.61000 12.28000
353587.81000 363976.72000 12.75000
353588.35000 363976.83000 13.13000
353588.89000 363976.94000 13.54000
353589.54000 363977.08000 13.42000
353590.28000 363977.23000 12.85000
353591.03000 363977.38000 12.21000
353591.76000 363977.53000 11.64000
353592.50000 363977.68000 11.12000
353593.23000 363977.83000 10.60000
353593.97000 363977.98000 10.03000
353642.52000 363933.08000 8.62000
353643.12000 363933.20000 8.77000
353643.71000 363933.32000 8.94000
353644.32000 363933.45000 9.05000
353644.92000 363933.57000 9.17000
353645.52000 363933.70000 9.27000
353646.12000 363933.82000 9.44000
353646.72000 363933.94000 9.55000
353647.31000 363934.07000 9.73000
353647.90000 363934.19000 9.89000
353648.49000 363934.32000 10.05000
353649.09000 363934.44000 10.21000
353649.69000 363934.56000 10.29000
353650.30000 363934.69000 10.40000
353650.89000 363934.82000 10.59000
353651.44000 363934.94000 10.89000
353652.30000 363935.08000 9.98000
353652.92000 363935.20000 10.01000
353653.55000 363935.32000 10.03000
353654.16000 363935.45000 10.10000
353654.79000 363935.57000 10.12000
353655.40000 363935.70000 10.21000
353656.02000 363935.82000 10.26000
353656.65000 363935.95000 10.27000
353657.27000 363936.07000 10.30000
353657.89000 363936.20000 10.34000
353658.51000 363936.32000 10.40000
353659.15000 363936.44000 10.37000
353659.76000 363936.57000 10.46000
353660.38000 363936.69000 10.49000
353661.00000 363936.82000 10.53000
353661.63000 363936.94000 10.57000
353662.24000 363937.07000 10.65000
353662.86000 363937.19000 10.68000
353663.48000 363937.31000 10.70000
353664.11000 363937.45000 10.71000
353664.74000 363937.57000 10.74000
353665.33000 363937.70000 10.90000
353665.95000 363937.82000 10.94000
353666.57000 363937.95000 11.00000
353667.20000 363938.07000 11.00000
353667.82000 363938.19000 11.05000
353668.34000 363938.42000 13.89000
353669.00000 363938.54000 13.76000
353670.32000 363938.79000 13.52000
353671.00000 363938.92000 13.37000
353671.66000 363939.04000 13.23000
353672.32000 363939.17000 13.12000
353672.98000 363939.30000 13.01000
353673.64000 363939.42000 12.90000
353674.28000 363939.54000 12.86000
353674.96000 363939.67000 12.66000
353675.60000 363939.80000 12.62000
353676.26000 363939.92000 12.53000
353676.90000 363940.06000 12.46000
353677.57000 363940.18000 12.32000
353678.22000 363940.31000 12.27000
353678.89000 363940.43000 12.11000
353679.44000 363940.56000 12.41000
353679.95000 363940.67000 12.85000
353680.46000 363940.79000 13.31000
353680.95000 363940.91000 13.80000
353681.46000 363941.03000 14.25000
353681.95000 363941.15000 14.74000
353682.45000 363941.27000 15.20000
353682.95000 363941.38000 15.70000
353683.44000 363941.50000 16.18000
353684.14000 363941.63000 15.90000
353684.97000 363941.76000 15.18000
353685.79000 363941.89000 14.50000
353686.60000 363942.03000 13.83000
353687.43000 363942.16000 13.07000
353688.22000 363942.29000 12.50000
353689.03000 363942.42000 11.83000
353689.83000 363942.56000 11.24000
353689.11000 363997.80000 15.62000
353689.67000 363997.92000 15.86000
353690.22000 363998.03000 16.08000
353690.77000 363998.15000 16.35000
353691.33000 363998.27000 16.56000
353691.86000 363998.38000 16.88000
353692.50000 363998.51000 16.82000
353693.11000 363998.64000 16.83000
353693.75000 363998.77000 16.80000
353707.84000 363946.06000 9.59000
353694.37000 363998.90000 16.75000
353708.37000 363946.17000 9.91000
353694.91000 363999.01000 17.05000
353708.83000 363946.29000 10.48000
353695.47000 363999.13000 17.24000
353708.84000 363946.38000 12.56000
353696.02000 363999.24000 17.49000
353709.49000 363946.50000 12.48000
353696.58000 363999.36000 17.70000
353710.12000 363946.62000 12.44000
353697.17000 363999.48000 17.79000
353710.75000 363946.75000 12.42000
353697.89000 363999.63000 17.44000
353711.36000 363946.87000 12.40000
353711.98000 363946.99000 12.42000
353712.54000 363947.11000 12.62000
353713.05000 363947.23000 13.00000
353713.57000 363947.34000 13.33000
353714.23000 363947.47000 13.21000
353715.00000 363947.60000 12.70000
353715.77000 363947.73000 12.17000
353716.50000 363947.86000 11.82000
353717.24000 363947.98000 11.38000
353718.06000 363948.12000 10.74000
353718.81000 363948.26000 10.28000
353719.41000 363948.38000 10.35000
353720.32000 363948.52000 9.37000
353729.45000 363950.33000 9.69000
353730.10000 363950.45000 9.58000
353730.73000 363950.57000 9.50000
353731.35000 363950.69000 9.49000
353731.98000 363950.81000 9.40000
353732.62000 363950.94000 9.32000
353733.25000 363951.07000 9.26000
353733.88000 363951.19000 9.19000
353734.53000 363951.31000 9.07000
353735.12000 363951.43000 9.10000
353736.37000 363951.67000 8.99000
353738.14000 363952.34000 16.84000
353738.67000 363952.45000 17.08000
353739.28000 363952.57000 17.02000
353739.93000 363952.69000 16.89000
353740.58000 363952.81000 16.69000
353741.25000 363952.94000 16.51000
353741.87000 363953.05000 16.40000
353742.31000 363952.94000 16.38000
353741.59000 363952.80000 16.46000
353740.87000 363952.66000 16.59000
353740.16000 363952.53000 16.71000
353739.43000 363952.39000 16.84000
353738.66000 363952.25000 17.11000
353737.93000 363952.11000 17.25000
353737.21000 363951.97000 17.37000
353736.55000 363951.84000 17.29000
353734.88000 363951.18000 9.36000
353734.24000 363951.05000 9.17000
353733.53000 363950.91000 9.20000
353732.81000 363950.77000 9.26000
353732.08000 363950.62000 9.36000
353731.36000 363950.48000 9.44000
353730.62000 363950.34000 9.53000
353729.89000 363950.20000 9.65000
353729.34000 363950.07000 9.14000
353720.00000 363948.24000 9.62000
353719.15000 363948.09000 10.10000
353718.26000 363947.93000 10.67000
353717.39000 363947.78000 11.21000
353716.52000 363947.63000 11.74000
353715.64000 363947.48000 12.29000
353714.75000 363947.33000 12.90000
353713.89000 363947.18000 13.37000
353713.13000 363947.04000 13.51000
353712.55000 363946.90000 13.10000
353711.94000 363946.77000 12.72000
353699.36000 363999.71000 16.76000
353711.22000 363946.62000 12.75000
353698.52000 363999.53000 17.19000
353710.51000 363946.48000 12.75000
353697.72000 363999.37000 17.53000
353709.76000 363946.34000 12.85000
353696.91000 363999.20000 17.87000
353709.18000 363946.20000 12.37000
353696.27000 363999.06000 17.59000
353695.65000 363998.93000 17.30000
353708.36000 363945.95000 10.25000
353695.01000 363998.80000 16.98000
353707.79000 363945.82000 9.71000
353694.39000 363998.67000 16.67000
353693.68000 363998.52000 16.67000
353692.95000 363998.37000 16.70000
353692.22000 363998.22000 16.73000
353691.54000 363998.07000 16.61000
353690.88000 363997.93000 16.39000
353690.26000 363997.80000 16.05000
353689.61000 363997.67000 15.80000
353688.98000 363997.54000 15.44000
353689.89000 363942.32000 11.32000
353688.95000 363942.17000 12.08000
353688.05000 363942.01000 12.70000
353687.09000 363941.86000 13.51000
353686.13000 363941.70000 14.34000
353685.18000 363941.55000 15.17000
353684.21000 363941.39000 16.02000
353683.49000 363941.25000 15.99000
353682.89000 363941.11000 15.48000
353682.31000 363940.97000 14.95000
353681.73000 363940.83000 14.39000
353681.15000 363940.70000 13.82000
353680.56000 363940.56000 13.28000
353679.97000 363940.42000 12.75000
353679.38000 363940.28000 12.24000
353678.66000 363940.13000 12.13000
353677.89000 363939.98000 12.29000
353677.12000 363939.84000 12.40000
353676.36000 363939.68000 12.50000
353675.60000 363939.53000 12.59000
353674.84000 363939.39000 12.68000
353674.07000 363939.24000 12.78000
353673.30000 363939.09000 12.93000
353672.55000 363938.94000 12.99000
353671.78000 363938.80000 13.09000
353671.00000 363938.65000 13.24000
353670.20000 363938.50000 13.51000
353669.44000 363938.35000 13.58000
353668.66000 363938.20000 13.71000
353668.01000 363938.06000 13.42000
353667.86000 363937.94000 11.15000
353667.15000 363937.79000 11.04000
353666.42000 363937.65000 11.00000
353665.71000 363937.50000 10.92000
353664.98000 363937.36000 10.85000
353664.26000 363937.21000 10.77000
353663.53000 363937.05000 10.76000
353662.80000 363936.91000 10.70000
353662.07000 363936.76000 10.68000
353661.35000 363936.61000 10.59000
353660.62000 363936.47000 10.56000
353659.89000 363936.32000 10.51000
353659.18000 363936.18000 10.41000
353658.43000 363936.03000 10.44000
353657.70000 363935.88000 10.35000
353656.98000 363935.74000 10.28000
353656.26000 363935.59000 10.21000
353655.52000 363935.44000 10.22000
353654.79000 363935.29000 10.15000
353654.07000 363935.15000 10.07000
353653.33000 363935.00000 10.09000
353652.60000 363934.85000 10.04000
353651.68000 363934.70000 10.75000
353651.00000 363934.56000 10.51000
353650.31000 363934.40000 10.31000
353649.58000 363934.25000 10.26000
353648.88000 363934.11000 10.10000
353648.19000 363933.96000 9.89000
353647.50000 363933.82000 9.66000
353646.79000 363933.67000 9.53000
353646.10000 363933.52000 9.34000
353645.40000 363933.38000 9.18000
353644.69000 363933.23000 9.05000
353643.99000 363933.09000 8.89000
353643.27000 363932.94000 8.77000
353594.29000 363977.73000 9.95000
353593.43000 363977.55000 10.63000
353592.58000 363977.37000 11.24000
353591.73000 363977.20000 11.83000
353590.86000 363977.02000 12.55000
353589.99000 363976.84000 13.23000
353589.20000 363976.68000 13.58000
353588.57000 363976.55000 13.11000
353587.95000 363976.42000 12.61000
353587.32000 363976.29000 12.13000
353586.69000 363976.16000 11.65000
353586.06000 363976.02000 11.20000
353585.43000 363975.89000 10.71000
353568.10000 363918.10000 13.16000
353567.41000 363917.95000 13.07000
353566.68000 363917.81000 13.14000
353566.00000 363917.67000 13.05000
353565.28000 363917.52000 13.08000
353564.57000 363917.38000 13.14000
353563.85000 363917.24000 13.19000
353559.80000 363916.88000 23.84000
353559.07000 363916.74000 23.99000
353550.67000 363968.66000 9.50000
353549.94000 363968.51000 9.64000
353549.22000 363968.36000 9.72000
353547.74000 363968.06000 10.20000
353546.94000 363967.89000 10.77000
353546.12000 363967.73000 11.49000
353545.27000 363967.55000 12.36000
353544.46000 363967.39000 13.05000
353543.85000 363967.26000 12.53000
353543.24000 363967.13000 11.97000
353542.63000 363967.00000 11.46000
353542.03000 363966.88000 10.89000
353541.41000 363966.74000 10.39000
353540.81000 363966.62000 9.82000
353540.19000 363966.49000 9.34000
353536.80000 363965.79000 13.11000
353536.12000 363965.66000 13.00000
353535.44000 363965.51000 12.92000
353534.75000 363965.37000 12.91000
353534.07000 363965.23000 12.87000
353533.38000 363965.09000 12.87000
353532.69000 363964.95000 12.83000
353532.00000 363964.80000 12.84000
353531.33000 363964.67000 12.73000
353530.63000 363964.52000 12.77000
353529.95000 363964.38000 12.75000
353529.26000 363964.24000 12.73000
353528.58000 363964.10000 12.68000
353527.91000 363963.96000 12.63000
353527.23000 363963.82000 12.58000
353526.55000 363963.67000 12.55000
353525.87000 363963.53000 12.47000
353525.20000 363963.39000 12.42000
353524.51000 363963.25000 12.43000
353523.84000 363963.11000 12.37000
353523.16000 363962.97000 12.34000
353522.49000 363962.83000 12.29000
353521.81000 363962.69000 12.22000
353521.14000 363962.55000 12.18000
353520.47000 363962.41000 12.11000
353451.97000 363948.27000 12.48000
353451.37000 363948.15000 12.29000
353450.76000 363948.02000 12.16000
353450.14000 363947.90000 12.05000
353449.54000 363947.77000 11.88000
353448.92000 363947.65000 11.78000
353448.32000 363947.52000 11.62000
353447.71000 363947.40000 11.44000
353447.11000 363947.27000 11.26000
353446.50000 363947.15000 11.14000
353445.89000 363947.01000 10.96000
353445.29000 363946.89000 10.79000
353444.68000 363946.76000 10.63000
353444.07000 363946.64000 10.52000
353443.47000 363946.51000 10.40000
353442.87000 363946.39000 10.20000
353442.26000 363946.26000 10.09000
353441.67000 363946.14000 9.91000
353427.02000 363943.15000 16.65000
353426.41000 363943.02000 16.85000
353425.79000 363942.89000 17.05000
353425.16000 363942.77000 17.24000
353424.54000 363942.64000 17.47000
353423.93000 363942.52000 17.64000
353423.31000 363942.39000 17.89000
353422.69000 363942.26000 18.08000
353422.07000 363942.14000 18.34000
353421.47000 363942.01000 18.45000
353420.86000 363941.89000 18.41000
353420.29000 363941.77000 18.18000
353419.70000 363941.65000 18.04000
353419.11000 363941.53000 17.83000
353418.53000 363941.41000 17.67000
353417.95000 363941.29000 17.40000
353417.36000 363941.17000 17.27000
353416.79000 363941.05000 17.02000
353416.20000 363940.93000 16.89000
353415.62000 363940.80000 16.69000
353415.03000 363940.68000 16.46000
353414.45000 363940.56000 16.29000
353413.87000 363940.44000 16.08000
353413.29000 363940.32000 15.87000
353406.09000 363938.83000 7.99000
353405.49000 363938.70000 8.09000
353404.89000 363938.58000 8.21000
353404.30000 363938.46000 8.28000
353403.69000 363938.34000 8.39000
353403.10000 363938.21000 8.51000
353402.50000 363938.09000 8.61000
353401.90000 363937.97000 8.75000
353401.14000 363937.82000 11.57000
353400.56000 363937.70000 11.29000
353399.97000 363937.58000 11.36000
353399.38000 363937.46000 11.24000
353398.79000 363937.34000 11.26000
353398.21000 363937.22000 11.22000
353397.62000 363937.10000 11.22000
353397.04000 363936.98000 11.11000
353396.46000 363936.86000 11.09000
353395.87000 363936.74000 11.05000
353395.28000 363936.62000 10.99000
353394.70000 363936.51000 10.99000
353394.12000 363936.39000 10.93000
353393.53000 363936.27000 10.93000
353392.95000 363936.15000 10.88000
353392.37000 363936.03000 10.85000
353391.78000 363935.90000 10.81000
353391.20000 363935.78000 10.76000
353390.62000 363935.66000 10.74000
353390.04000 363935.54000 10.71000
353389.45000 363935.42000 10.67000
353388.88000 363935.31000 10.56000
353388.28000 363935.18000 10.77000
353387.69000 363935.06000 10.89000
353387.10000 363934.94000 11.03000
353386.52000 363934.83000 11.14000
353385.93000 363934.71000 11.33000
353385.33000 363934.58000 11.56000
353384.74000 363934.47000 11.75000
353384.14000 363934.34000 12.07000
353383.55000 363934.22000 12.27000
353383.11000 363934.13000 9.56000
353382.53000 363934.01000 9.45000
353381.96000 363933.89000 9.27000
353381.37000 363933.77000 9.22000
353380.80000 363933.65000 9.12000
353380.22000 363933.54000 9.02000
353379.65000 363933.42000 8.92000
353379.08000 363933.29000 8.83000
353378.50000 363933.17000 8.74000
353377.93000 363933.06000 8.58000
353377.35000 363932.94000 8.54000
353376.77000 363932.82000 8.47000
353376.20000 363932.70000 8.30000
353298.47000 363916.87000 13.38000
353297.91000 363916.75000 13.42000
353297.34000 363916.64000 13.45000
353296.79000 363916.53000 13.41000
353376.40000 363932.09000 8.31000
353376.97000 363932.21000 8.44000
353377.53000 363932.32000 8.51000
353378.09000 363932.43000 8.65000
353378.66000 363932.55000 8.72000
353379.22000 363932.66000 8.91000
353379.79000 363932.79000 8.93000
353380.35000 363932.90000 9.09000
353380.91000 363933.02000 9.17000
353381.47000 363933.13000 9.31000
353382.04000 363933.25000 9.38000
353382.60000 363933.36000 9.49000
353383.17000 363933.48000 9.66000
353383.60000 363933.57000 12.32000
353384.18000 363933.69000 12.18000
353384.77000 363933.80000 11.82000
353385.34000 363933.92000 11.64000
353385.92000 363934.04000 11.43000
353386.50000 363934.15000 11.33000
353387.07000 363934.27000 11.13000
353387.65000 363934.39000 10.92000
353388.23000 363934.50000 10.78000
353388.81000 363934.62000 10.61000
353389.39000 363934.74000 10.47000
353390.52000 363934.97000 10.49000
353391.09000 363935.09000 10.54000
353391.65000 363935.20000 10.63000
353392.22000 363935.32000 10.68000
353392.79000 363935.44000 10.65000
353393.36000 363935.56000 10.73000
353393.92000 363935.67000 10.76000
353394.49000 363935.79000 10.81000
353395.06000 363935.90000 10.82000
353395.63000 363936.02000 10.87000
353396.20000 363936.13000 10.87000
353396.77000 363936.25000 10.97000
353397.34000 363936.36000 10.96000
353397.90000 363936.48000 10.99000
353398.47000 363936.60000 11.04000
353399.04000 363936.71000 11.10000
353399.61000 363936.83000 11.08000
353400.18000 363936.94000 11.15000
353400.75000 363937.06000 11.16000
353401.30000 363937.17000 11.56000
353402.04000 363937.31000 8.71000
353402.62000 363937.43000 8.60000
353403.20000 363937.55000 8.50000
353403.78000 363937.67000 8.41000
353404.36000 363937.79000 8.29000
353404.94000 363937.90000 8.18000
353405.52000 363938.02000 8.12000
353406.10000 363938.14000 7.98000
353413.58000 363939.69000 16.00000
353414.13000 363939.80000 16.22000
353414.69000 363939.91000 16.39000
353415.25000 363940.03000 16.59000
353415.81000 363940.14000 16.76000
353416.37000 363940.27000 16.95000
353416.93000 363940.38000 17.09000
353417.49000 363940.50000 17.34000
353418.05000 363940.61000 17.52000
353418.60000 363940.72000 17.73000
353419.16000 363940.84000 17.90000
353419.72000 363940.95000 18.05000
353420.29000 363941.07000 18.23000
353420.84000 363941.18000 18.46000
353421.41000 363941.29000 18.46000
353421.99000 363941.41000 18.35000
353422.59000 363941.53000 18.06000
353423.18000 363941.65000 17.89000
353423.77000 363941.77000 17.63000
353424.35000 363941.89000 17.51000
353424.94000 363942.01000 17.32000
353425.53000 363942.13000 17.06000
353426.13000 363942.25000 16.89000
353426.71000 363942.37000 16.75000
353427.30000 363942.49000 16.58000
353442.90000 363945.67000 10.01000
353443.47000 363945.78000 10.16000
353444.04000 363945.90000 10.29000
353444.60000 363946.01000 10.48000
353445.18000 363946.13000 10.59000
353445.75000 363946.25000 10.72000
353446.32000 363946.36000 10.82000
353446.89000 363946.49000 10.99000
353447.46000 363946.61000 11.09000
353448.02000 363946.72000 11.31000
353448.59000 363946.84000 11.43000
353449.16000 363946.96000 11.57000
353449.73000 363947.07000 11.74000
353450.30000 363947.19000 11.81000
353450.87000 363947.30000 11.98000
353451.44000 363947.42000 12.07000
353452.01000 363947.54000 12.23000
353452.60000 363947.66000 12.13000
353510.30000 363959.50000 10.46000
353510.99000 363959.64000 9.85000
353511.64000 363959.77000 9.53000
353520.81000 363961.67000 12.84000
353521.39000 363961.79000 12.96000
353521.99000 363961.91000 13.01000
353522.59000 363962.03000 13.06000
353523.19000 363962.16000 13.10000
353523.79000 363962.28000 13.12000
353524.39000 363962.40000 13.19000
353524.99000 363962.53000 13.21000
353525.59000 363962.65000 13.24000
353526.20000 363962.77000 13.23000
353526.79000 363962.90000 13.28000
353527.39000 363963.03000 13.36000
353527.99000 363963.15000 13.37000
353528.59000 363963.28000 13.43000
353529.19000 363963.40000 13.44000
353529.79000 363963.52000 13.47000
353530.40000 363963.65000 13.50000
353531.01000 363963.77000 13.51000
353531.58000 363963.89000 13.73000
353532.22000 363964.02000 13.50000
353532.84000 363964.15000 13.43000
353533.45000 363964.27000 13.45000
353534.05000 363964.40000 13.44000
353534.68000 363964.53000 13.35000
353535.29000 363964.65000 13.33000
353535.91000 363964.78000 13.26000
353536.53000 363964.91000 13.18000
353537.14000 363965.03000 13.17000
353540.79000 363965.77000 9.56000
353541.32000 363965.88000 10.03000
353541.86000 363965.99000 10.49000
353542.38000 363966.11000 11.01000
353542.92000 363966.22000 11.48000
353543.45000 363966.33000 11.96000
353543.97000 363966.44000 12.52000
353544.50000 363966.55000 12.96000
353545.15000 363966.69000 12.77000
353545.88000 363966.83000 12.06000
353546.62000 363966.98000 11.31000
353547.34000 363967.13000 10.66000
353548.03000 363967.27000 10.22000
353551.22000 363967.93000 9.54000
353562.99000 363916.61000 22.31000
353564.66000 363916.55000 13.22000
353565.28000 363916.67000 13.14000
353565.91000 363916.80000 13.09000
353566.52000 363916.92000 13.12000
353567.15000 363917.04000 13.06000
353567.76000 363917.17000 13.12000
353568.38000 363917.30000 13.09000
353568.99000 363917.42000 13.12000
353569.60000 363917.54000 13.16000
353571.52000 363917.91000 12.81000
353572.12000 363918.03000 12.86000
353585.24000 363974.97000 9.89000
353585.80000 363975.08000 10.24000
353586.33000 363975.19000 10.71000
353586.89000 363975.31000 11.05000
353587.43000 363975.42000 11.45000
353587.96000 363975.53000 11.88000
353588.51000 363975.65000 12.28000
353589.05000 363975.76000 12.71000
353589.57000 363975.87000 13.19000
353590.12000 363975.98000 13.58000
353590.82000 363976.13000 13.18000
353591.56000 363976.28000 12.63000
353592.30000 363976.43000 12.09000
353593.04000 363976.58000 11.53000
353593.78000 363976.73000 10.98000
353594.52000 363976.88000 10.42000
353595.25000 363977.03000 9.92000
353644.00000 363932.14000 8.56000
353644.59000 363932.26000 8.75000
353645.18000 363932.39000 8.91000
353645.79000 363932.51000 9.03000
353646.39000 363932.64000 9.16000
353646.98000 363932.76000 9.37000
353647.59000 363932.89000 9.45000
353648.19000 363933.01000 9.60000
353648.79000 363933.14000 9.74000
353649.40000 363933.26000 9.84000
353649.99000 363933.39000 10.06000
353650.60000 363933.51000 10.15000
353651.19000 363933.64000 10.30000
353651.80000 363933.77000 10.42000
353652.40000 363933.89000 10.57000
353653.76000 363934.15000 10.23000
353654.40000 363934.27000 10.17000
353655.03000 363934.40000 10.20000
353655.65000 363934.52000 10.29000
353656.28000 363934.65000 10.29000
353656.90000 363934.77000 10.34000
353657.51000 363934.90000 10.46000
353658.14000 363935.02000 10.47000
353658.77000 363935.15000 10.50000
353659.40000 363935.27000 10.56000
353660.02000 363935.40000 10.59000
353660.65000 363935.52000 10.62000
353661.28000 363935.65000 10.66000
353661.90000 363935.77000 10.71000
353662.52000 363935.90000 10.74000
353663.15000 363936.03000 10.79000
353663.79000 363936.15000 10.79000
353664.39000 363936.28000 10.89000
353665.02000 363936.41000 10.92000
353665.64000 363936.53000 10.99000
353666.26000 363936.66000 11.04000
353666.89000 363936.78000 11.05000
353667.42000 363937.01000 13.92000
353668.12000 363937.13000 13.67000
353668.78000 363937.26000 13.56000
353669.45000 363937.39000 13.43000
353670.12000 363937.51000 13.29000
353670.78000 363937.64000 13.19000
353671.45000 363937.77000 13.07000
353672.11000 363937.89000 12.96000
353672.79000 363938.02000 12.80000
353673.44000 363938.14000 12.72000
353674.10000 363938.27000 12.65000
353674.76000 363938.40000 12.51000
353675.42000 363938.52000 12.44000
353676.08000 363938.65000 12.34000
353676.74000 363938.78000 12.26000
353677.39000 363938.91000 12.18000
353678.93000 363939.17000 11.20000
353679.44000 363939.29000 11.63000
353679.96000 363939.41000 12.08000
353680.48000 363939.53000 12.48000
353680.99000 363939.65000 12.93000
353681.50000 363939.77000 13.38000
353682.01000 363939.89000 13.86000
353682.52000 363940.01000 14.32000
353683.01000 363940.13000 14.82000
353683.52000 363940.25000 15.28000
353684.01000 363940.37000 15.79000
353684.50000 363940.48000 16.32000
353686.10000 363940.75000 15.08000
353686.94000 363940.88000 14.34000
353687.77000 363941.02000 13.61000
353688.59000 363941.15000 12.92000
353689.40000 363941.28000 12.31000
353690.18000 363941.41000 11.76000
353690.97000 363941.55000 11.21000
353689.16000 363996.58000 15.29000
353689.66000 363996.68000 15.72000
353690.23000 363996.80000 15.94000
353690.77000 363996.91000 16.21000
353691.35000 363997.03000 16.40000
353691.98000 363997.17000 16.36000
353692.62000 363997.30000 16.32000
353693.25000 363997.43000 16.31000
353693.85000 363997.56000 16.35000
353694.41000 363997.67000 16.59000
353708.44000 363944.94000 9.64000
353694.97000 363997.79000 16.80000
353708.96000 363945.06000 9.99000
353695.51000 363997.90000 17.13000
353709.02000 363945.15000 11.97000
353696.07000 363998.02000 17.33000
353709.64000 363945.27000 11.98000
353696.63000 363998.14000 17.56000
353710.27000 363945.40000 11.96000
353697.16000 363998.25000 17.86000
353710.89000 363945.52000 11.96000
353697.85000 363998.39000 17.62000
353711.53000 363945.65000 11.88000
353698.56000 363998.54000 17.30000
353712.11000 363945.77000 12.06000
353699.28000 363998.69000 16.94000
353712.62000 363945.88000 12.44000
353699.98000 363998.83000 16.69000
353713.15000 363946.00000 12.75000
353700.70000 363998.98000 16.34000
353713.67000 363946.12000 13.12000
353701.42000 363999.13000 16.00000
353714.19000 363946.23000 13.45000
353702.08000 363999.27000 15.84000
353714.90000 363946.36000 13.17000
353702.63000 363999.39000 16.09000
353715.70000 363946.49000 12.56000
353716.43000 363946.62000 12.20000
353717.25000 363946.76000 11.54000
353718.01000 363946.89000 11.10000
353718.78000 363947.03000 10.59000
353719.55000 363947.16000 10.09000
353720.30000 363947.29000 9.66000
353730.26000 363949.49000 15.46000
353730.78000 363949.61000 15.78000
353731.35000 363949.73000 15.90000
353731.90000 363949.84000 16.10000
353732.48000 363949.96000 16.20000
353733.02000 363950.08000 16.42000
353733.57000 363950.19000 16.60000
353734.11000 363950.31000 16.81000
353734.64000 363950.42000 17.07000
353735.18000 363950.54000 17.27000
353735.72000 363950.65000 17.49000
353736.30000 363950.77000 17.57000
353736.97000 363950.89000 17.38000
353737.59000 363951.01000 17.32000
353738.28000 363951.13000 17.06000
353738.91000 363951.25000 16.98000
353739.54000 363951.38000 16.88000
353740.18000 363951.50000 16.79000
353740.82000 363951.62000 16.67000
353741.46000 363951.74000 16.54000
353742.09000 363951.86000 16.45000
353742.01000 363951.69000 16.46000
353741.28000 363951.55000 16.59000
353740.57000 363951.41000 16.66000
353739.83000 363951.27000 16.81000
353739.11000 363951.13000 16.92000
353738.38000 363950.99000 17.03000
353737.64000 363950.85000 17.18000
353736.92000 363950.72000 17.29000
353736.17000 363950.57000 17.43000
353735.48000 363950.44000 17.43000
353734.88000 363950.31000 17.14000
353734.25000 363950.17000 16.90000
353733.64000 363950.04000 16.63000
353733.01000 363949.91000 16.41000
353732.39000 363949.78000 16.14000
353731.77000 363949.64000 15.89000
353731.14000 363949.51000 15.66000
353730.49000 363949.37000 15.47000
353729.82000 363949.24000 15.37000
353720.10000 363947.08000 9.89000
353719.24000 363946.93000 10.39000
353718.38000 363946.77000 10.84000
353717.47000 363946.62000 11.46000
353716.60000 363946.47000 11.99000
353715.71000 363946.32000 12.53000
353714.83000 363946.16000 13.09000
353702.53000 363999.19000 16.13000
353701.92000 363999.05000 15.77000
353713.38000 363945.88000 13.12000
353701.09000 363998.88000 16.16000
353712.76000 363945.74000 12.76000
353700.26000 363998.71000 16.53000
353712.16000 363945.61000 12.36000
353699.46000 363998.54000 16.83000
353711.55000 363945.47000 11.99000
353698.62000 363998.37000 17.25000
353710.79000 363945.32000 12.10000
353697.80000 363998.20000 17.61000
353710.02000 363945.18000 12.30000
353697.04000 363998.04000 17.75000
353709.27000 363945.03000 12.35000
353696.39000 363997.90000 17.48000
353709.17000 363944.92000 10.19000
353695.76000 363997.77000 17.16000
353708.53000 363944.79000 9.93000
353695.11000 363997.63000 16.93000
353694.48000 363997.50000 16.58000
353693.82000 363997.36000 16.36000
353693.16000 363997.22000 16.17000
353692.42000 363997.07000 16.22000
353691.68000 363996.91000 16.26000
353690.97000 363996.77000 16.23000
353690.31000 363996.63000 15.96000
353689.66000 363996.49000 15.72000
353690.46000 363941.26000 11.61000
353689.52000 363941.11000 12.35000
353688.60000 363940.95000 13.00000
353687.63000 363940.80000 13.84000
353686.67000 363940.64000 14.67000
353684.15000 363940.19000 15.78000
353683.55000 363940.05000 15.26000
353682.98000 363939.91000 14.65000
353682.39000 363939.77000 14.11000
353681.80000 363939.63000 13.55000
353681.21000 363939.49000 13.02000
353680.61000 363939.35000 12.50000
353680.00000 363939.21000 12.03000
353679.40000 363939.07000 11.48000
353678.79000 363938.93000 11.00000
353677.76000 363938.77000 12.07000
353676.97000 363938.61000 12.23000
353676.22000 363938.46000 12.28000
353675.44000 363938.32000 12.42000
353674.67000 363938.17000 12.51000
353673.90000 363938.02000 12.65000
353673.13000 363937.87000 12.76000
353672.36000 363937.72000 12.82000
353671.57000 363937.57000 13.01000
353670.82000 363937.43000 13.04000
353670.04000 363937.28000 13.20000
353669.24000 363937.13000 13.40000
353668.45000 363936.98000 13.58000
353667.69000 363936.83000 13.67000
353666.91000 363936.68000 13.78000
353666.79000 363936.56000 11.37000
353666.13000 363936.42000 11.05000
353665.40000 363936.27000 10.98000
353664.67000 363936.12000 10.92000
353663.94000 363935.96000 10.88000
353663.23000 363935.82000 10.75000
353662.48000 363935.67000 10.76000
353661.75000 363935.52000 10.68000
353661.02000 363935.38000 10.62000
353660.27000 363935.23000 10.61000
353659.55000 363935.08000 10.54000
353658.82000 363934.93000 10.50000
353658.08000 363934.78000 10.43000
353657.35000 363934.64000 10.38000
353656.62000 363934.49000 10.31000
353655.88000 363934.34000 10.27000
353655.14000 363934.19000 10.26000
353654.41000 363934.05000 10.16000
353652.73000 363933.74000 10.90000
353652.10000 363933.60000 10.45000
353651.40000 363933.45000 10.28000
353650.69000 363933.30000 10.11000
353649.99000 363933.15000 9.91000
353649.28000 363933.00000 9.79000
353648.57000 363932.85000 9.63000
353647.86000 363932.71000 9.49000
353647.14000 363932.56000 9.37000
353646.45000 363932.41000 9.11000
353645.74000 363932.27000 8.95000
353645.03000 363932.12000 8.83000
353644.33000 363931.97000 8.62000
353595.78000 363976.87000 9.70000
353594.94000 363976.70000 10.24000
353594.08000 363976.52000 10.85000
353593.21000 363976.35000 11.53000
353592.34000 363976.17000 12.18000
353591.48000 363975.99000 12.80000
353590.61000 363975.81000 13.48000
353589.92000 363975.67000 13.28000
353589.28000 363975.54000 12.84000
353588.67000 363975.41000 12.27000
353588.03000 363975.27000 11.80000
353587.40000 363975.14000 11.31000
353586.77000 363975.01000 10.83000
353586.13000 363974.88000 10.38000
353585.48000 363974.74000 9.94000
353572.15000 363917.74000 12.87000
353571.44000 363917.60000 12.81000
353569.97000 363917.32000 13.05000
353569.25000 363917.17000 13.10000
353568.54000 363917.03000 13.09000
353567.82000 363916.88000 13.10000
353567.11000 363916.74000 13.08000
353566.40000 363916.60000 13.12000
353547.33000 363966.83000 10.64000
353546.47000 363966.65000 11.52000
353545.63000 363966.48000 12.35000
353544.75000 363966.30000 13.37000
353544.17000 363966.18000 12.66000
353543.57000 363966.05000 12.04000
353542.95000 363965.92000 11.53000
353542.35000 363965.80000 10.93000
353541.74000 363965.66000 10.41000
353541.13000 363965.53000 9.84000
353540.51000 363965.40000 9.36000
353537.12000 363964.72000 12.92000
353536.42000 363964.57000 12.99000
353535.71000 363964.42000 13.04000
353535.01000 363964.28000 13.10000
353534.30000 363964.13000 13.16000
353533.59000 363963.99000 13.24000
353532.89000 363963.85000 13.26000
353532.20000 363963.70000 13.26000
353531.43000 363963.54000 13.73000
353530.79000 363963.41000 13.39000
353530.11000 363963.27000 13.35000
353529.40000 363963.13000 13.42000
353528.72000 363962.98000 13.41000
353528.02000 363962.84000 13.47000
353527.33000 363962.70000 13.43000
353526.64000 363962.55000 13.47000
353525.95000 363962.40000 13.46000
353525.26000 363962.26000 13.42000
353524.58000 363962.12000 13.40000
353523.90000 363961.98000 13.37000
353523.21000 363961.84000 13.38000
353522.54000 363961.70000 13.29000
353521.86000 363961.56000 13.20000
353521.18000 363961.42000 13.22000
353520.51000 363961.28000 13.10000
353511.51000 363959.41000 9.43000
353510.74000 363959.25000 10.06000
353509.95000 363959.09000 10.81000
353451.90000 363947.13000 12.02000
353451.28000 363947.01000 12.00000
353450.67000 363946.88000 11.82000
353450.05000 363946.75000 11.74000
353449.44000 363946.63000 11.64000
353448.83000 363946.50000 11.40000
353448.22000 363946.38000 11.29000
353447.61000 363946.25000 11.15000
353447.00000 363946.13000 10.96000
353446.40000 363945.99000 10.77000
353445.79000 363945.87000 10.61000
353445.18000 363945.74000 10.49000
353444.57000 363945.62000 10.37000
353443.96000 363945.49000 10.20000
353443.36000 363945.37000 10.07000
353426.84000 363941.99000 16.63000
353426.22000 363941.87000 16.83000
353425.60000 363941.74000 17.01000
353424.98000 363941.61000 17.26000
353424.36000 363941.49000 17.45000
353423.74000 363941.36000 17.63000
353423.12000 363941.23000 17.89000
353422.50000 363941.11000 18.07000
353421.88000 363940.98000 18.26000
353421.26000 363940.86000 18.49000
353420.67000 363940.74000 18.40000
353420.08000 363940.62000 18.22000
353419.50000 363940.50000 18.00000
353418.91000 363940.38000 17.83000
353418.33000 363940.25000 17.64000
353417.74000 363940.14000 17.43000
353417.16000 363940.01000 17.24000
353416.58000 363939.90000 17.03000
353415.99000 363939.77000 16.87000
353415.40000 363939.64000 16.68000
353414.82000 363939.53000 16.51000
353414.24000 363939.41000 16.26000
353413.65000 363939.29000 16.12000
353413.08000 363939.17000 15.90000
353405.86000 363937.67000 8.03000
353405.27000 363937.55000 8.10000
353404.66000 363937.42000 8.24000
353404.06000 363937.30000 8.32000
353403.46000 363937.18000 8.44000
353402.87000 363937.06000 8.51000
353402.26000 363936.93000 8.64000
353401.67000 363936.81000 8.75000
353400.93000 363936.67000 11.16000
353400.34000 363936.55000 11.10000
353399.75000 363936.43000 11.05000
353399.17000 363936.31000 11.02000
353398.58000 363936.19000 10.97000
353397.99000 363936.07000 10.95000
353397.41000 363935.95000 10.92000
353396.83000 363935.83000 10.83000
353396.23000 363935.71000 10.85000
353395.65000 363935.59000 10.77000
353395.07000 363935.47000 10.80000
353394.48000 363935.35000 10.69000
353393.90000 363935.23000 10.65000
353393.31000 363935.11000 10.65000
353392.74000 363935.00000 10.54000
353392.15000 363934.87000 10.47000
353389.24000 363934.27000 10.43000
353388.64000 363934.15000 10.62000
353388.05000 363934.03000 10.76000
353387.46000 363933.91000 10.96000
353386.87000 363933.79000 11.13000
353386.28000 363933.67000 11.30000
353385.68000 363933.55000 11.48000
353385.10000 363933.43000 11.66000
353384.50000 363933.31000 11.86000
353383.90000 363933.19000 12.31000
353383.45000 363933.09000 9.69000
353382.88000 363932.97000 9.52000
353382.30000 363932.86000 9.41000
353381.72000 363932.74000 9.37000
353381.15000 363932.62000 9.27000
353380.57000 363932.50000 9.13000
353380.00000 363932.38000 9.04000
353379.42000 363932.26000 8.88000
353378.85000 363932.14000 8.76000
353378.27000 363932.02000 8.68000
353377.70000 363931.91000 8.57000
353377.13000 363931.79000 8.49000
353376.55000 363931.67000 8.33000
353375.99000 363931.56000 8.07000
353376.19000 363931.08000 8.28000
353376.76000 363931.20000 8.34000
353377.33000 363931.31000 8.50000
353377.90000 363931.43000 8.55000
353378.46000 363931.54000 8.75000
353379.03000 363931.66000 8.84000
353379.60000 363931.77000 8.95000
353380.16000 363931.90000 9.00000
353380.74000 363932.01000 9.12000
353381.30000 363932.13000 9.27000
353381.87000 363932.24000 9.36000
353382.44000 363932.36000 9.45000
353383.00000 363932.47000 9.58000
353383.45000 363932.57000 12.15000
353383.57000 363932.59000 9.64000
353384.01000 363932.68000 12.35000
353384.61000 363932.81000 11.84000
353385.19000 363932.92000 11.67000
353385.77000 363933.04000 11.50000
353386.35000 363933.16000 11.29000
353386.93000 363933.28000 11.08000
353387.51000 363933.39000 10.91000
353388.09000 363933.51000 10.82000
353388.67000 363933.63000 10.67000
353389.26000 363933.75000 10.42000
353393.84000 363934.69000 10.58000
353394.42000 363934.80000 10.44000
353394.98000 363934.92000 10.60000
353395.56000 363935.03000 10.57000
353396.13000 363935.15000 10.65000
353396.70000 363935.27000 10.72000
353397.28000 363935.38000 10.67000
353397.84000 363935.50000 10.78000
353398.42000 363935.62000 10.80000
353398.99000 363935.73000 10.83000
353399.56000 363935.85000 10.94000
353400.14000 363935.96000 10.85000
353400.70000 363936.08000 10.98000
353401.26000 363936.19000 11.27000
353402.00000 363936.34000 8.67000
353402.58000 363936.46000 8.55000
353403.17000 363936.57000 8.46000
353403.75000 363936.69000 8.37000
353404.32000 363936.81000 8.28000
353404.91000 363936.93000 8.21000
353405.49000 363937.05000 8.05000
353406.07000 363937.16000 8.01000
353413.03000 363938.61000 15.98000
353413.59000 363938.72000 16.12000
353414.15000 363938.83000 16.33000
353414.72000 363938.95000 16.51000
353415.28000 363939.06000 16.73000
353415.84000 363939.18000 16.88000
353416.40000 363939.30000 17.04000
353416.96000 363939.42000 17.23000
353417.53000 363939.53000 17.38000
353418.09000 363939.65000 17.59000
353418.65000 363939.76000 17.79000
353419.22000 363939.88000 17.95000
353419.77000 363939.99000 18.15000
353420.34000 363940.11000 18.33000
353420.90000 363940.22000 18.49000
353421.49000 363940.34000 18.38000
353422.08000 363940.46000 18.17000
353422.67000 363940.58000 17.99000
353423.27000 363940.70000 17.76000
353423.85000 363940.82000 17.62000
353424.45000 363940.94000 17.37000
353425.04000 363941.06000 17.20000
353425.63000 363941.18000 16.97000
353426.23000 363941.30000 16.76000
353426.82000 363941.42000 16.63000
353443.68000 363944.85000 9.94000
353444.25000 363944.97000 10.08000
353444.82000 363945.09000 10.27000
353445.39000 363945.20000 10.42000
353445.97000 363945.32000 10.53000
353446.54000 363945.44000 10.65000
353447.11000 363945.57000 10.80000
353447.68000 363945.68000 10.98000
353448.25000 363945.80000 11.12000
353448.83000 363945.92000 11.27000
353449.40000 363946.03000 11.36000
353449.98000 363946.15000 11.49000
353450.55000 363946.27000 11.61000
353451.12000 363946.38000 11.78000
353456.21000 363947.41000 7.97000
353508.12000 363958.08000 12.16000
353508.73000 363958.20000 12.17000
353509.40000 363958.34000 11.60000
353510.08000 363958.48000 11.02000
353510.78000 363958.62000 10.37000
353511.47000 363958.76000 9.78000
353512.17000 363958.90000 9.11000
353521.22000 363960.78000 13.37000
353521.83000 363960.90000 13.35000
353522.44000 363961.03000 13.31000
353523.05000 363961.15000 13.27000
353523.65000 363961.28000 13.29000
353524.27000 363961.41000 13.16000
353524.89000 363961.53000 13.15000
353525.50000 363961.66000 13.06000
353526.11000 363961.78000 13.06000
353526.74000 363961.91000 12.95000
353527.34000 363962.04000 12.96000
353527.96000 363962.17000 12.86000
353528.57000 363962.30000 12.88000
353529.18000 363962.42000 12.86000
353529.78000 363962.55000 12.86000
353530.41000 363962.67000 12.77000
353531.02000 363962.80000 12.74000
353531.63000 363962.92000 12.74000
353532.25000 363963.05000 12.69000
353532.86000 363963.18000 12.64000
353533.47000 363963.30000 12.62000
353534.09000 363963.43000 12.54000
353534.70000 363963.55000 12.56000
353535.33000 363963.68000 12.48000
353535.94000 363963.81000 12.41000
353536.56000 363963.94000 12.37000
353537.18000 363964.06000 12.33000
353540.72000 363964.78000 9.34000
353541.27000 363964.90000 9.72000
353541.81000 363965.01000 10.19000
353542.34000 363965.13000 10.65000
353542.86000 363965.24000 11.22000
353543.39000 363965.35000 11.70000
353543.91000 363965.46000 12.21000
353544.43000 363965.56000 12.76000
353544.89000 363965.66000 13.69000
353545.69000 363965.82000 12.53000
353546.45000 363965.98000 11.68000
353547.17000 363966.12000 11.05000
353547.89000 363966.27000 10.44000
353548.55000 363966.40000 10.19000
353549.82000 363966.66000 9.93000
353569.49000 363916.54000 13.10000
353570.12000 363916.66000 13.04000
353570.77000 363916.78000 12.83000
353571.39000 363916.91000 12.83000
353572.00000 363917.03000 12.86000
353572.62000 363917.15000 12.83000
353573.25000 363917.27000 12.78000
353573.87000 363917.40000 12.74000
353586.24000 363974.19000 10.23000
353586.69000 363974.29000 11.05000
353587.37000 363974.43000 10.78000
353587.92000 363974.54000 11.16000
353588.46000 363974.66000 11.55000
353588.98000 363974.77000 12.03000
353589.53000 363974.88000 12.42000
353590.06000 363974.99000 12.85000
353590.59000 363975.10000 13.32000
353591.16000 363975.22000 13.59000
353591.90000 363975.37000 13.00000
353592.64000 363975.52000 12.42000
353593.38000 363975.67000 11.87000
353594.11000 363975.82000 11.35000
353594.85000 363975.97000 10.80000
353595.59000 363976.12000 10.24000
353596.31000 363976.27000 9.77000
353645.47000 363931.46000 8.71000
353646.06000 363931.58000 8.86000
353646.66000 363931.71000 8.99000
353647.27000 363931.83000 9.08000
353647.86000 363931.95000 9.27000
353648.46000 363932.08000 9.42000
353649.06000 363932.20000 9.54000
353649.66000 363932.33000 9.67000
353650.26000 363932.45000 9.80000
353650.86000 363932.57000 9.93000
353651.45000 363932.71000 10.09000
353652.06000 363932.83000 10.19000
353652.65000 363932.95000 10.36000
353653.25000 363933.08000 10.50000
353653.85000 363933.20000 10.63000
353654.39000 363933.32000 10.95000
353655.20000 363933.45000 10.29000
353655.83000 363933.58000 10.30000
353656.42000 363933.70000 10.43000
353657.06000 363933.83000 10.43000
353657.67000 363933.95000 10.51000
353658.30000 363934.08000 10.53000
353658.92000 363934.20000 10.59000
353659.54000 363934.33000 10.62000
353660.16000 363934.45000 10.65000
353660.78000 363934.57000 10.72000
353661.41000 363934.70000 10.74000
353662.04000 363934.82000 10.75000
353662.65000 363934.95000 10.82000
353663.27000 363935.07000 10.86000
353663.89000 363935.20000 10.89000
353664.51000 363935.33000 10.95000
353665.13000 363935.45000 11.01000
353665.74000 363935.58000 11.09000
353667.62000 363936.05000 13.57000
353668.26000 363936.18000 13.52000
353668.93000 363936.30000 13.39000
353669.60000 363936.43000 13.23000
353670.26000 363936.55000 13.13000
353670.92000 363936.68000 13.00000
353671.57000 363936.80000 12.94000
353672.25000 363936.93000 12.76000
353672.91000 363937.06000 12.65000
353673.57000 363937.18000 12.53000
353674.21000 363937.31000 12.50000
353674.88000 363937.43000 12.37000
353675.53000 363937.56000 12.28000
353676.20000 363937.68000 12.14000
353676.84000 363937.81000 12.09000
353679.61000 363938.33000 11.17000
353680.13000 363938.45000 11.60000
353680.65000 363938.56000 12.01000
353681.17000 363938.68000 12.40000
353681.68000 363938.80000 12.85000
353682.19000 363938.92000 13.30000
353682.68000 363939.04000 13.80000
353683.17000 363939.16000 14.29000
353683.68000 363939.27000 14.76000
353684.19000 363939.39000 15.17000
353684.68000 363939.51000 15.67000
353685.87000 363939.75000 15.92000
353686.70000 363939.89000 15.17000
353687.51000 363940.02000 14.51000
353688.34000 363940.15000 13.78000
353689.15000 363940.29000 13.12000
353689.98000 363940.42000 12.40000
353690.75000 363940.55000 11.88000
353691.54000 363940.69000 11.31000
353689.62000 363995.69000 15.52000
353690.18000 363995.81000 15.78000
353690.73000 363995.92000 16.00000
353691.35000 363996.05000 16.01000
353691.98000 363996.18000 15.98000
353692.62000 363996.31000 15.92000
353693.22000 363996.44000 15.97000
353693.78000 363996.56000 16.21000
353694.34000 363996.67000 16.42000
353708.44000 363943.94000 9.15000
353694.88000 363996.79000 16.69000
353708.90000 363944.05000 9.72000
353695.43000 363996.90000 16.93000
353709.42000 363944.17000 10.08000
353695.97000 363997.02000 17.19000
353709.94000 363944.29000 10.45000
353696.52000 363997.13000 17.44000
353710.47000 363944.40000 10.74000
353697.06000 363997.24000 17.72000
353711.00000 363944.52000 11.06000
353697.65000 363997.37000 17.80000
353711.50000 363944.64000 11.45000
353698.37000 363997.52000 17.44000
353712.02000 363944.75000 11.78000
353699.07000 363997.66000 17.15000
353712.54000 363944.87000 12.16000
353699.79000 363997.81000 16.79000
353713.05000 363944.99000 12.51000
353700.48000 363997.95000 16.54000
353713.57000 363945.10000 12.87000
353701.19000 363998.10000 16.21000
353714.10000 363945.22000 13.17000
353701.91000 363998.25000 15.86000
353714.62000 363945.33000 13.48000
353702.45000 363998.37000 16.10000
353715.39000 363945.47000 12.98000
353703.01000 363998.49000 16.30000
353716.14000 363945.59000 12.53000
353716.90000 363945.73000 12.06000
353717.68000 363945.86000 11.51000
353718.46000 363945.99000 10.99000
353719.21000 363946.13000 10.54000
353719.97000 363946.26000 10.06000
353720.73000 363946.39000 9.60000
353729.58000 363948.34000 14.77000
353730.11000 363948.46000 15.06000
353730.62000 363948.58000 15.35000
353731.18000 363948.69000 15.54000
353731.74000 363948.81000 15.67000
353732.28000 363948.92000 15.89000
353732.79000 363949.04000 16.18000
353733.34000 363949.15000 16.37000
353733.88000 363949.27000 16.58000
353734.41000 363949.38000 16.81000
353734.96000 363949.50000 17.00000
353735.48000 363949.61000 17.25000
353736.01000 363949.72000 17.49000
353736.60000 363949.84000 17.50000
353737.19000 363949.96000 17.56000
353737.90000 363950.08000 17.21000
353738.53000 363950.20000 17.13000
353739.17000 363950.32000 17.00000
353739.80000 363950.44000 16.89000
353740.44000 363950.56000 16.79000
353741.07000 363950.68000 16.65000
353741.70000 363950.80000 16.56000
353742.34000 363950.92000 16.44000
353742.17000 363950.66000 16.51000
353741.44000 363950.52000 16.65000
353740.74000 363950.38000 16.71000
353740.00000 363950.24000 16.88000
353739.30000 363950.11000 16.97000
353738.57000 363949.97000 17.10000
353737.83000 363949.83000 17.26000
353737.08000 363949.69000 17.51000
353736.40000 363949.56000 17.46000
353735.74000 363949.42000 17.36000
353735.12000 363949.29000 17.15000
353734.52000 363949.16000 16.87000
353733.92000 363949.03000 16.60000
353733.31000 363948.90000 16.33000
353732.69000 363948.77000 16.08000
353732.07000 363948.64000 15.87000
353731.46000 363948.50000 15.57000
353730.81000 363948.37000 15.44000
353730.21000 363948.24000 15.13000
353729.59000 363948.10000 14.86000
